ply
format ascii 1.0
element vertex 480
property float x
property float y
property float z
property uchar red
property uchar green
property uchar blue
end_header
27.200 34.100 0.000 80 180 255
28.250 34.250 0.125 80 180 255
29.200 34.300 0.250 80 180 255
6.700 24.000 0.375 80 180 255
14.950 30.850 0.500 80 180 255
27.800 34.300 0.625 80 180 255
26.100 33.600 0.750 80 180 255
15.450 31.000 0.875 80 180 255
28.500 34.200 1.000 80 180 255
27.550 34.150 1.125 80 180 255
22.800 30.400 1.250 80 180 255
22.700 30.400 1.375 80 180 255
22.900 30.350 1.500 80 180 255
28.250 34.100 1.625 80 180 255
28.000 34.100 1.750 80 180 255
14.800 18.200 1.875 80 180 255
12.600 18.250 2.000 80 180 255
27.000 34.100 2.125 80 180 255
25.600 34.100 2.250 80 180 255
27.950 34.000 2.375 80 180 255
26.400 34.000 2.500 80 180 255
24.550 33.850 2.625 80 180 255
26.500 33.800 2.750 80 180 255
25.600 33.800 2.875 80 180 255
12.550 18.600 3.000 80 180 255
25.950 33.750 3.125 80 180 255
25.400 33.750 3.250 80 180 255
24.800 33.750 3.375 80 180 255
24.250 33.750 3.500 80 180 255
30.700 33.650 3.625 80 180 255
24.950 33.600 3.750 80 180 255
23.750 33.600 3.875 80 180 255
25.600 33.500 4.000 80 180 255
23.400 33.500 4.125 80 180 255
22.300 30.550 4.250 80 180 255
25.050 33.450 4.375 80 180 255
24.850 33.450 4.500 80 180 255
14.850 30.850 4.625 80 180 255
22.950 33.400 4.750 80 180 255
13.200 19.150 4.875 80 180 255
2.900 24.100 0.000 80 180 255
23.050 33.250 0.125 80 180 255
24.300 33.150 0.250 80 180 255
12.400 19.250 0.375 80 180 255
12.300 19.300 0.500 80 180 255
22.900 33.100 0.625 80 180 255
22.300 33.100 0.750 80 180 255
21.750 33.100 0.875 80 180 255
2.950 24.200 1.000 80 180 255
28.100 33.050 1.125 80 180 255
12.200 19.500 1.250 80 180 255
4.100 21.450 1.375 80 180 255
23.800 33.050 1.500 80 180 255
28.300 33.000 1.625 80 180 255
21.400 32.950 1.750 80 180 255
14.250 19.600 1.875 80 180 255
23.450 32.850 2.000 80 180 255
12.950 21.250 2.125 80 180 255
14.300 19.700 2.250 80 180 255
12.100 19.750 2.375 80 180 255
16.550 31.700 2.500 80 180 255
20.000 29.050 2.625 80 180 255
22.950 32.750 2.750 80 180 255
24.550 21.200 2.875 80 180 255
20.050 32.750 3.000 80 180 255
17.550 32.000 3.125 80 180 255
21.350 32.700 3.250 80 180 255
11.900 19.900 3.375 80 180 255
2.300 20.550 3.500 80 180 255
16.000 19.900 3.625 80 180 255
20.800 32.700 3.750 80 180 255
20.300 32.700 3.875 80 180 255
20.550 32.650 4.000 80 180 255
25.550 32.550 4.125 80 180 255
27.800 19.950 4.250 80 180 255
21.800 32.550 4.375 80 180 255
27.000 20.000 4.500 80 180 255
20.800 32.550 4.625 80 180 255
19.600 32.550 4.750 80 180 255
27.850 20.050 4.875 80 180 255
25.650 32.450 0.000 80 180 255
18.750 32.350 0.125 80 180 255
21.800 32.450 0.250 80 180 255
24.900 20.200 0.375 80 180 255
21.300 32.450 0.500 80 180 255
19.300 32.450 0.625 80 180 255
18.900 32.450 0.750 80 180 255
18.750 32.450 0.875 80 180 255
18.600 32.400 1.000 80 180 255
19.150 32.400 1.125 80 180 255
12.450 20.350 1.250 80 180 255
18.150 32.250 1.375 80 180 255
24.950 20.350 1.500 80 180 255
26.300 25.400 1.625 80 180 255
23.050 32.950 1.750 80 180 255
28.400 20.400 1.875 80 180 255
17.950 32.250 2.000 80 180 255
19.200 32.200 2.125 80 180 255
18.400 32.200 2.250 80 180 255
26.000 33.650 2.375 80 180 255
2.050 20.600 2.500 80 180 255
20.100 32.100 2.625 80 180 255
3.000 20.650 2.750 80 180 255
15.900 20.650 2.875 80 180 255
19.250 32.100 3.000 80 180 255
20.100 32.000 3.125 80 180 255
14.700 18.450 3.250 80 180 255
18.750 32.000 3.375 80 180 255
26.400 33.850 3.500 80 180 255
14.650 18.350 3.625 80 180 255
19.650 31.950 3.750 80 180 255
27.200 34.200 3.875 80 180 255
19.550 31.950 4.000 80 180 255
28.000 34.350 4.125 80 180 255
4.550 26.900 4.250 80 180 255
4.800 26.850 4.375 80 180 255
19.200 26.800 4.500 80 180 255
3.300 26.800 4.625 80 180 255
16.100 20.900 4.750 80 180 255
20.100 31.900 4.875 80 180 255
5.300 16.650 0.000 80 180 255
5.350 13.400 0.125 80 180 255
34.000 32.350 0.250 80 180 255
22.850 22.450 0.375 80 180 255
6.250 11.600 0.500 80 180 255
6.400 11.650 0.625 80 180 255
22.600 22.450 0.750 80 180 255
23.750 22.400 0.875 80 180 255
5.250 11.850 1.000 80 180 255
7.050 11.850 1.125 80 180 255
22.400 22.400 1.250 80 180 255
20.250 22.400 1.375 80 180 255
19.950 22.350 1.500 80 180 255
14.000 22.300 1.625 80 180 255
18.950 12.150 1.750 80 180 255
4.950 12.200 1.875 80 180 255
5.200 12.200 2.000 80 180 255
23.900 22.250 2.125 80 180 255
27.800 29.300 2.250 80 180 255
19.000 12.250 2.375 80 180 255
22.700 22.200 2.500 80 180 255
14.950 22.850 2.625 80 180 255
13.950 22.950 2.750 80 180 255
14.150 22.950 2.875 80 180 255
14.400 23.000 3.000 80 180 255
4.450 12.450 3.125 80 180 255
33.600 31.450 3.250 80 180 255
14.000 23.050 3.375 80 180 255
19.300 12.450 3.500 80 180 255
33.600 31.250 3.625 80 180 255
14.600 23.050 3.750 80 180 255
29.400 30.350 3.875 80 180 255
15.000 23.050 4.000 80 180 255
21.550 22.700 4.125 80 180 255
31.700 30.150 4.250 80 180 255
21.700 23.050 4.375 80 180 255
22.950 21.950 4.500 80 180 255
15.100 23.150 4.625 80 180 255
21.900 23.200 4.750 80 180 255
29.100 29.950 4.875 80 180 255
27.000 23.200 0.000 80 180 255
7.700 12.850 0.125 80 180 255
14.700 22.700 0.250 80 180 255
28.600 29.850 0.375 80 180 255
29.650 29.800 0.500 80 180 255
27.600 28.800 0.625 80 180 255
20.250 22.600 0.750 80 180 255
28.200 29.750 0.875 80 180 255
11.600 21.850 1.000 80 180 255
7.350 13.200 1.125 80 180 255
5.550 13.350 1.250 80 180 255
15.700 23.350 1.375 80 180 255
29.350 29.650 1.500 80 180 255
6.250 13.450 1.625 80 180 255
21.900 23.400 1.750 80 180 255
28.200 29.500 1.875 80 180 255
33.650 29.400 2.000 80 180 255
8.150 13.500 2.125 80 180 255
18.200 13.500 2.250 80 180 255
4.900 13.600 2.375 80 180 255
23.400 22.650 2.500 80 180 255
27.350 29.400 2.625 80 180 255
15.150 23.500 2.750 80 180 255
16.800 23.650 2.875 80 180 255
22.500 21.600 3.000 80 180 255
27.550 29.350 3.125 80 180 255
26.850 29.100 3.250 80 180 255
22.350 21.600 3.375 80 180 255
16.900 13.750 3.500 80 180 255
23.100 22.600 3.625 80 180 255
16.050 23.700 3.750 80 180 255
19.650 13.850 3.875 80 180 255
23.650 22.600 4.000 80 180 255
22.250 26.350 4.125 80 180 255
17.200 23.750 4.250 80 180 255
29.050 16.350 4.375 80 180 255
28.300 29.300 4.500 80 180 255
14.400 22.650 4.625 80 180 255
16.950 14.000 4.750 80 180 255
22.250 23.750 4.875 80 180 255
16.900 23.850 0.000 80 180 255
16.750 14.100 0.125 80 180 255
27.050 29.300 0.250 80 180 255
30.650 29.250 0.375 80 180 255
31.850 23.850 0.500 80 180 255
27.050 29.200 0.625 80 180 255
33.550 29.150 0.750 80 180 255
5.650 14.250 0.875 80 180 255
6.850 14.250 1.000 80 180 255
31.450 29.000 1.125 80 180 255
27.600 29.000 1.250 80 180 255
28.950 20.950 1.375 80 180 255
14.100 14.300 1.500 80 180 255
14.900 14.300 1.625 80 180 255
19.700 20.900 1.750 80 180 255
16.450 23.950 1.875 80 180 255
23.350 26.800 2.000 80 180 255
20.900 25.850 2.125 80 180 255
6.950 14.400 2.250 80 180 255
22.250 23.950 2.375 80 180 255
31.850 23.950 2.500 80 180 255
26.750 28.850 2.625 80 180 255
17.650 24.000 2.750 80 180 255
4.600 14.450 2.875 80 180 255
23.500 24.000 3.000 80 180 255
28.850 20.750 3.125 80 180 255
27.400 28.800 3.250 80 180 255
26.200 28.800 3.375 80 180 255
23.800 24.000 3.500 80 180 255
26.000 28.700 3.625 80 180 255
26.400 28.650 3.750 80 180 255
14.050 14.500 3.875 80 180 255
16.350 24.050 4.000 80 180 255
4.600 14.550 4.125 80 180 255
4.750 14.550 4.250 80 180 255
28.300 20.550 4.375 80 180 255
31.400 29.150 4.500 80 180 255
26.250 28.500 4.625 80 180 255
19.600 24.050 4.750 80 180 255
13.400 20.500 4.875 80 180 255
31.900 24.000 0.000 80 180 255
25.300 24.750 0.125 80 180 255
26.400 25.300 0.250 80 180 255
23.950 24.000 0.375 80 180 255
14.300 19.700 0.500 80 180 255
23.600 24.000 0.625 80 180 255
20.250 19.750 0.750 80 180 255
5.700 9.300 0.875 80 180 255
13.850 19.800 1.000 80 180 255
14.850 19.800 1.125 80 180 255
20.700 18.100 1.250 80 180 255
16.400 9.450 1.375 80 180 255
20.500 17.800 1.500 80 180 255
20.350 17.800 1.625 80 180 255
18.000 9.500 1.750 80 180 255
13.650 19.500 1.875 80 180 255
23.400 23.850 2.000 80 180 255
4.750 9.600 2.125 80 180 255
26.250 24.650 2.250 80 180 255
15.300 19.900 2.375 80 180 255
20.900 18.100 2.500 80 180 255
14.650 19.950 2.625 80 180 255
24.350 23.800 2.750 80 180 255
20.250 19.950 2.875 80 180 255
23.300 23.750 3.000 80 180 255
18.650 20.050 3.125 80 180 255
14.250 19.450 3.250 80 180 255
14.700 20.150 3.375 80 180 255
23.000 23.650 3.500 80 180 255
29.550 30.350 3.625 80 180 255
31.150 23.600 3.750 80 180 255
30.750 23.600 3.875 80 180 255
4.500 9.950 4.000 80 180 255
22.500 23.500 4.125 80 180 255
15.850 20.150 4.250 80 180 255
17.850 20.150 4.375 80 180 255
13.950 19.450 4.500 80 180 255
13.750 19.450 4.625 80 180 255
31.500 26.250 4.750 80 180 255
18.100 17.200 4.875 80 180 255
31.400 24.550 0.000 80 180 255
12.350 17.050 0.125 80 180 255
12.250 17.050 0.250 80 180 255
33.700 23.350 0.375 80 180 255
14.900 20.200 0.500 80 180 255
19.100 21.950 0.625 80 180 255
7.000 10.450 0.750 80 180 255
15.950 10.450 0.875 80 180 255
22.150 23.350 1.000 80 180 255
12.300 16.950 1.125 80 180 255
22.050 23.350 1.250 80 180 255
12.200 16.900 1.375 80 180 255
16.050 20.200 1.500 80 180 255
12.850 19.400 1.625 80 180 255
19.450 10.800 1.750 80 180 255
20.400 20.200 1.875 80 180 255
11.500 16.700 2.000 80 180 255
5.100 10.950 2.125 80 180 255
22.450 23.300 2.250 80 180 255
7.350 10.950 2.375 80 180 255
18.550 10.950 2.500 80 180 255
4.900 11.050 2.625 80 180 255
34.650 26.350 2.750 80 180 255
15.150 20.250 2.875 80 180 255
10.900 16.600 3.000 80 180 255
10.750 16.500 3.125 80 180 255
33.000 26.500 3.250 80 180 255
21.750 18.400 3.375 80 180 255
13.300 19.050 3.500 80 180 255
25.250 16.350 3.625 80 180 255
15.900 20.250 3.750 80 180 255
12.900 16.300 3.875 80 180 255
22.200 23.250 4.000 80 180 255
21.450 18.700 4.125 80 180 255
19.950 19.300 4.250 80 180 255
13.600 19.250 4.375 80 180 255
25.350 16.200 4.500 80 180 255
33.150 26.650 4.625 80 180 255
11.050 16.150 4.750 80 180 255
25.450 16.100 4.875 80 180 255
16.500 20.400 0.000 80 180 255
20.450 18.450 0.125 80 180 255
22.200 23.150 0.250 80 180 255
24.100 23.850 0.375 80 180 255
25.650 24.850 0.500 80 180 255
19.750 19.200 0.625 80 180 255
22.500 23.100 0.750 80 180 255
8.600 15.900 0.875 80 180 255
25.300 24.550 1.000 80 180 255
25.050 24.200 1.125 80 180 255
8.000 15.800 1.250 80 180 255
26.400 25.150 1.375 80 180 255
32.800 23.050 1.500 80 180 255
10.200 15.750 1.625 80 180 255
21.800 23.050 1.750 80 180 255
24.750 24.500 1.875 80 180 255
25.150 24.200 2.000 80 180 255
12.500 11.700 2.125 80 180 255
15.450 20.500 2.250 80 180 255
18.200 11.700 2.375 80 180 255
15.700 20.500 2.500 80 180 255
29.300 24.200 2.625 80 180 255
8.950 15.550 2.750 80 180 255
20.800 22.850 2.875 80 180 255
15.900 20.550 3.000 80 180 255
21.450 22.800 3.125 80 180 255
15.750 11.800 3.250 80 180 255
24.750 15.500 3.375 80 180 255
21.450 22.600 3.500 80 180 255
5.350 11.900 3.625 80 180 255
24.100 24.250 3.750 80 180 255
33.000 22.700 3.875 80 180 255
23.650 22.700 4.000 80 180 255
32.800 22.650 4.125 80 180 255
21.100 22.600 4.250 80 180 255
29.500 27.000 4.375 80 180 255
16.150 20.550 4.500 80 180 255
16.800 20.600 4.625 80 180 255
20.800 22.600 4.750 80 180 255
35.100 22.550 4.875 80 180 255
21.850 24.950 0.000 80 180 255
32.150 24.050 0.125 80 180 255
16.050 12.000 0.250 80 180 255
20.150 24.050 0.375 80 180 255
20.650 24.000 0.500 80 180 255
4.300 12.100 0.625 80 180 255
16.150 12.100 0.750 80 180 255
4.100 12.150 0.875 80 180 255
4.300 12.200 1.000 80 180 255
14.400 12.200 1.125 80 180 255
32.200 23.950 1.250 80 180 255
4.050 12.250 1.375 80 180 255
28.050 23.850 1.500 80 180 255
27.700 23.800 1.625 80 180 255
19.350 23.800 1.750 80 180 255
20.000 23.750 1.875 80 180 255
19.500 23.700 2.000 80 180 255
28.250 23.650 2.125 80 180 255
27.850 23.650 2.250 80 180 255
19.400 23.600 2.375 80 180 255
4.200 12.350 2.500 80 180 255
4.300 12.350 2.625 80 180 255
14.000 12.350 2.750 80 180 255
15.700 12.350 2.875 80 180 255
25.150 23.550 3.000 80 180 255
19.850 23.550 3.125 80 180 255
19.600 23.550 3.250 80 180 255
14.250 12.400 3.375 80 180 255
18.950 23.550 3.500 80 180 255
25.250 23.500 3.625 80 180 255
14.800 12.400 3.750 80 180 255
18.700 23.500 3.875 80 180 255
19.700 23.450 4.000 80 180 255
19.100 23.450 4.125 80 180 255
18.600 23.450 4.250 80 180 255
25.150 23.350 4.375 80 180 255
19.550 23.350 4.500 80 180 255
19.350 23.350 4.625 80 180 255
20.800 24.150 4.750 80 180 255
15.550 12.500 4.875 80 180 255
33.600 26.500 0.000 80 180 255
25.000 23.200 0.125 80 180 255
23.500 23.200 0.250 80 180 255
18.900 23.200 0.375 80 180 255
19.150 23.100 0.500 80 180 255
2.850 12.650 0.625 80 180 255
17.800 23.100 0.750 80 180 255
21.800 23.050 0.875 80 180 255
25.600 23.000 1.000 80 180 255
14.300 12.750 1.125 80 180 255
23.650 23.000 1.250 80 180 255
15.800 12.850 1.375 80 180 255
17.650 23.000 1.500 80 180 255
2.550 12.950 1.625 80 180 255
28.550 24.200 1.750 80 180 255
18.650 22.900 1.875 80 180 255
14.250 12.950 2.000 80 180 255
17.850 22.900 2.125 80 180 255
20.450 24.250 2.250 80 180 255
28.750 24.250 2.375 80 180 255
17.400 22.700 2.500 80 180 255
16.950 22.700 2.625 80 180 255
17.650 22.650 2.750 80 180 255
15.700 13.050 2.875 80 180 255
2.650 13.100 3.000 80 180 255
21.650 22.600 3.125 80 180 255
2.850 13.150 3.250 80 180 255
15.950 22.200 3.375 80 180 255
32.000 24.250 3.500 80 180 255
18.150 22.600 3.625 80 180 255
9.400 13.250 3.750 80 180 255
30.650 28.350 3.875 80 180 255
16.900 13.250 4.000 80 180 255
17.800 22.600 4.125 80 180 255
32.150 24.250 4.250 80 180 255
16.800 22.500 4.375 80 180 255
3.650 13.400 4.500 80 180 255
32.850 24.250 4.625 80 180 255
32.800 26.650 4.750 80 180 255
21.950 22.400 4.875 80 180 255
17.750 22.400 0.000 80 180 255
17.450 22.400 0.125 80 180 255
32.950 26.750 0.250 80 180 255
16.950 22.300 0.375 80 180 255
1.750 13.550 0.500 80 180 255
7.550 13.550 0.625 80 180 255
24.450 22.250 0.750 80 180 255
16.850 22.250 0.875 80 180 255
2.050 13.600 1.000 80 180 255
16.550 22.250 1.125 80 180 255
16.150 22.200 1.250 80 180 255
16.950 22.150 1.375 80 180 255
3.800 13.650 1.500 80 180 255
20.400 24.350 1.625 80 180 255
17.150 22.100 1.750 80 180 255
33.250 26.800 1.875 80 180 255
20.500 24.350 2.000 80 180 255
16.750 22.000 2.125 80 180 255
9.650 13.700 2.250 80 180 255
12.850 13.700 2.375 80 180 255
14.250 13.700 2.500 80 180 255
15.800 22.000 2.625 80 180 255
15.550 22.000 2.750 80 180 255
28.350 26.850 2.875 80 180 255
16.650 21.950 3.000 80 180 255
25.700 21.900 3.125 80 180 255
20.750 24.350 3.250 80 180 255
16.400 21.900 3.375 80 180 255
12.850 13.800 3.500 80 180 255
24.950 26.950 3.625 80 180 255
14.100 13.850 3.750 80 180 255
28.700 24.350 3.875 80 180 255
16.700 21.800 4.000 80 180 255
26.400 26.100 4.125 80 180 255
30.650 28.250 4.250 80 180 255
15.400 21.750 4.375 80 180 255
12.650 13.900 4.500 80 180 255
7.100 13.950 4.625 80 180 255
15.150 21.700 4.750 80 180 255
18.100 21.650 4.875 80 180 255
